ply
format ascii 1.0
comment PCL generated
element vertex 585
property float x
property float y
property float z
property uchar red
property uchar green
property uchar blue
property float nx
property float ny
property float nz
property float curvature
element camera 0
property float view_px
property float view_py
property float view_pz
property float x_axisx
property float x_axisy
property float x_axisz
property float y_axisx
property float y_axisy
property float y_axisz
property float z_axisx
property float z_axisy
property float z_axisz
property float focal
property float scalex
property float scaley
property float centerx
property float centery
property int viewportx
property int viewporty
property float k1
property float k2
end_header
0.23400569 0.23813675 0.90994829 162 185 209 0.5924207 0.36440289 -0.71850413 0
0.23452666 0.24106796 0.91197413 162 185 209 0.60668194 0.36564299 -0.70586264 0
0.23500194 0.24396241 0.91382229 162 185 209 0.62153566 0.34372982 -0.70394826 0
0.23546691 0.24685572 0.9156304 162 185 209 0.61515737 0.34881049 -0.70704502 0
0.23595284 0.24978082 0.91752005 165 188 212 0.61219484 0.31969488 -0.72319615 0
0.2362964 0.2525636 0.91885579 160 183 207 0.60407764 0.22966012 -0.76311624 0
0.23647739 0.25517812 0.9195596 153 182 208 0.58517849 0.15562284 -0.79583138 0
0.23661812 0.25775242 0.92010701 157 186 217 0.55233812 0.093474403 -0.82836294 0
0.23665377 0.260214 0.92024547 133 164 203 0.51686758 -0.02491362 -0.85570282 0
0.23657563 0.26255006 0.91994166 79 120 164 0.46679392 -0.17996107 -0.86586231 0
0.23637268 0.26474473 0.91915226 110 157 208 0.3948735 -0.36620635 -0.84259599 0
0.24033216 0.13493463 0.9250887 162 211 252 -0.261902 -0.55045176 -0.79272336 0
0.23987207 0.13710719 0.92331767 165 212 251 -0.45739561 -0.59531623 -0.66059667 0
0.23946558 0.13930161 0.92175329 173 213 246 -0.61274928 -0.51453739 -0.59982461 0
0.23909663 0.14151001 0.92033303 183 216 237 -0.64664924 -0.51373744 -0.56384271 0
0.23866801 0.14367507 0.91868317 207 233 241 -0.63239771 -0.55171233 -0.54377073 0
0.23822378 0.14582188 0.91697329 237 255 255 -0.61066079 -0.57747 -0.54186881 0
0.23775384 0.14794362 0.91516441 246 253 255 -0.58593744 -0.60127801 -0.54326969 0
0.2372742 0.15004969 0.91331822 189 187 193 -0.50863624 -0.64362776 -0.57186764 0
0.23676087 0.15212443 0.91134214 114 110 116 -0.40707695 -0.68257129 -0.60694706 0
0.23624486 0.15418696 0.90935582 121 118 122 -0.30590069 -0.68794096 -0.65815037 0
0.23575906 0.15625915 0.9074859 193 192 196 -0.2168621 -0.66455466 -0.71507907 0
0.23531345 0.15834858 0.90577072 198 198 208 -0.14351538 -0.63646704 -0.75783455 0
0.23488894 0.16044326 0.90413666 185 189 203 -0.089614734 -0.63373715 -0.76834005 0
0.23444647 0.16251697 0.90243369 120 123 131 -0.045376834 -0.66459745 -0.74582249 0
0.23395382 0.16454636 0.90053731 225 230 233 -0.0023783487 -0.70960808 -0.70459265 0
0.23339956 0.16652186 0.89840382 237 240 248 0.047899127 -0.74394345 -0.66652369 0
0.23279952 0.16845298 0.89609396 137 143 150 0.10801301 -0.75045836 -0.65203178 0
0.23219714 0.17037018 0.8937754 190 202 204 0.17808358 -0.72187233 -0.66872013 0
0.23163818 0.17230751 0.8916238 239 255 255 0.25500622 -0.65218866 -0.71387804 0
0.23116875 0.17430103 0.88981688 234 255 255 0.33098641 -0.54119414 -0.77301812 0
0.23080735 0.17636748 0.88842565 207 228 235 0.39479628 -0.40508783 -0.82464522 0
0.23055515 0.17851129 0.88745493 165 183 200 0.44344112 -0.26751292 -0.85545117 0
0.23039822 0.18072465 0.88685101 130 152 172 0.47835344 -0.14951889 -0.86534512 0
0.23031993 0.18299739 0.88654977 154 179 198 0.5017333 -0.05230061 -0.86343974 0
0.23031297 0.18532585 0.88652277 158 185 204 0.51767039 0.025960883 -0.85518616 0
0.23036397 0.18770146 0.88671923 159 184 203 0.52978319 0.090787686 -0.84325999 0
0.23047332 0.19012623 0.88714033 161 186 205 0.54147804 0.1558568 -0.82614177 0
0.23065415 0.19261281 0.88783598 166 190 212 0.55430824 0.21534945 -0.80396956 0
0.23089997 0.19515811 0.88878232 168 194 216 0.56741852 0.26175797 -0.78071707 0
0.23120688 0.19776055 0.88996363 167 193 215 0.57915127 0.2986927 -0.75852907 0
0.23157132 0.20041902 0.89136654 167 193 215 0.58617669 0.32653546 -0.74146587 0
0.23197889 0.20312269 0.8929354 165 192 216 0.58734041 0.34581003 -0.73174226 0
0.23241545 0.20586024 0.89461553 166 190 217 0.58209825 0.35947007 -0.72934425 0
0.23286697 0.20862007 0.89635366 166 190 217 0.571666 0.36296636 -0.73583525 0
0.23330043 0.21137276 0.89802223 165 189 216 0.55855489 0.35303256 -0.75058937 0
0.23369707 0.21410041 0.89954901 156 180 207 0.54497898 0.33697757 -0.76775265 0
0.23405987 0.21680474 0.90094548 157 182 206 0.53365928 0.31916341 -0.78316182 0
0.23438992 0.21948579 0.90221584 159 182 206 0.52630466 0.30683517 -0.79300416 0
0.23471098 0.22216509 0.90345168 161 182 205 0.52458477 0.30926514 -0.79319978 0
0.23504794 0.22486599 0.90474874 170 188 213 0.51755947 0.30798703 -0.7982958 0
0.23536 0.22754975 0.90594989 164 182 207 0.53031605 0.32709888 -0.78215814 0
0.23576908 0.23033457 0.90752465 158 179 202 0.54056853 0.36604577 -0.75749338 0
0.23622707 0.23317589 0.90928739 162 182 207 0.57578892 0.36773637 -0.73023087 0
0.23670965 0.23605113 0.91114509 159 182 206 0.59768403 0.37793905 -0.70706153 0
0.23726512 0.23900948 0.91328305 155 178 202 0.61933559 0.36649662 -0.69433683 0
0.23775601 0.24191353 0.91517282 155 178 202 0.61692971 0.35027671 -0.70477229 0
0.23823552 0.2448156 0.91701818 156 179 203 0.60465223 0.35748124 -0.71176034 0
0.23873256 0.2477458 0.91893166 154 177 201 0.59467828 0.33325356 -0.73164183 0
0.23909484 0.25054473 0.92032617 153 176 200 0.56518817 0.2527068 -0.78530359 0
0.23929082 0.25317517 0.92108059 154 177 201 0.53957868 0.17839518 -0.8228184 0
0.23944969 0.25576976 0.92169172 155 184 210 0.52163047 0.11760711 -0.84502679 0
0.2395099 0.25826135 0.9219237 150 179 210 0.48695144 0.012325932 -0.87334198 0
0.23947059 0.26064578 0.92177218 110 141 180 0.44254288 -0.12150756 -0.88847715 0
0.23932026 0.26290751 0.92119384 102 143 187 0.38363039 -0.29029924 -0.87667221 0
0.23904517 0.26502782 0.92013496 144 191 242 0.30530876 -0.47661793 -0.82439184 0
0.24198397 0.13692829 0.92211252 159 210 251 -0.46650979 -0.71479672 -0.52099359 0
0.24140388 0.1390219 0.91990203 164 211 250 -0.66311169 -0.58202332 -0.47067165 0
0.24097387 0.1411918 0.91826344 168 209 245 -0.70813727 -0.50469029 -0.49379092 0
0.24055816 0.14336164 0.91667932 187 220 247 -0.67247212 -0.51724035 -0.52938062 0
0.24014109 0.14552234 0.91509008 219 246 255 -0.62193406 -0.55011672 -0.55728787 0
0.23969729 0.14765824 0.91339874 237 255 255 -0.58237118 -0.56130582 -0.58803028 0
0.23928915 0.14980744 0.91184348 238 246 253 -0.50717932 -0.57769513 -0.6395604 0
0.23885833 0.15193412 0.91020179 148 150 160 -0.40323386 -0.61305356 -0.67938781 0
0.23842041 0.15404749 0.90853304 111 103 114 -0.2992987 -0.62214983 -0.72342926 0
0.23799756 0.15616207 0.90692186 98 92 103 -0.21058306 -0.60737765 -0.76599425 0
0.23759815 0.15828376 0.90540004 102 98 109 -0.14053899 -0.59149134 -0.79396915 0
0.23720546 0.1604019 0.90390348 109 109 121 -0.085960068 -0.59905738 -0.79607862 0
0.23678932 0.16249605 0.90231758 110 112 124 -0.038001429 -0.63380647 -0.77255756 0
0.23632428 0.16454786 0.90054548 212 214 226 0.011081253 -0.67671388 -0.73616278 0
0.23580672 0.16655326 0.89857322 167 172 181 0.069697097 -0.70498019 -0.7057941 0
0.23525447 0.1685234 0.89646888 144 155 159 0.14075553 -0.70267051 -0.69745386 0
0.23470852 0.17048705 0.89438838 234 250 253 0.22350596 -0.66231841 -0.71510792 0
0.23420852 0.17247362 0.89248335 233 255 255 0.31263664 -0.57989287 -0.75231808 0
0.23379426 0.17451401 0.89090443 231 251 255 0.39585432 -0.46156803 -0.79388571 0
0.23348032 0.17662215 0.88970828 183 200 221 0.46167508 -0.3267377 -0.82468098 0
0.23327132 0.17880435 0.88891184 132 151 174 0.50864619 -0.19765244 -0.83798116 0
0.23315401 0.18105358 0.88846499 150 169 192 0.53938138 -0.093298055 -0.83687711 0
0.23311101 0.1833588 0.88830078 175 191 215 0.55899554 -0.01087102 -0.82909948 0
0.23313463 0.18571632 0.88839078 165 185 205 0.57093608 0.056147434 -0.81907231 0
0.23321579 0.18812072 0.88870025 158 178 198 0.57929879 0.11739947 -0.80661654 0
0.23336351 0.19058114 0.88926321 151 171 191 0.58612108 0.18317728 -0.78924543 0
0.23359342 0.19311245 0.89013922 138 157 180 0.59283012 0.24133447 -0.76831645 0
0.23389333 0.19570695 0.89128208 123 142 165 0.59912366 0.28387392 -0.74864304 0
0.23425435 0.19835921 0.89265764 114 133 156 0.60396296 0.31290677 -0.73301989 0
0.23465766 0.20105501 0.89419478 113 132 155 0.6046229 0.32907003 -0.72535789 0
0.2350796 0.20377488 0.89580244 107 126 149 0.59900695 0.33670267 -0.72651362 0
0.2355036 0.20650506 0.89741808 104 119 145 0.585594 0.33982223 -0.73593521 0
0.23591553 0.20923321 0.89898801 107 121 145 0.5657534 0.33488405 -0.75350893 0
0.23629275 0.21193832 0.90042531 119 137 162 0.54214466 0.32385421 -0.77536935 0
0.23663907 0.21462308 0.90174514 154 174 199 0.52079535 0.31579474 -0.79312408 0
0.23696956 0.21730034 0.90300471 162 182 207 0.50959831 0.31129318 -0.80212611 0
0.23729354 0.21997805 0.90423912 165 183 208 0.49423406 0.32107449 -0.80786377 0
0.23763829 0.22268169 0.90555257 164 179 205 0.51706111 0.31105158 -0.7974301 0
0.23795857 0.22536913 0.90677321 98 113 139 0.53653479 0.33384714 -0.77503324 0
0.23839729 0.22817633 0.90844482 68 88 113 0.56497115 0.3676019 -0.73869914 0
0.23888503 0.23103993 0.91030377 59 79 104 0.58249629 0.38008329 -0.71849489 0
0.23941632 0.23395568 0.91232824 64 81 109 0.61068588 0.38509208 -0.69192982 0
0.24000669 0.23694047 0.91457766 55 69 98 0.61182058 0.39088643 -0.68766528 0
0.24057634 0.23991646 0.91674858 53 67 96 0.60690457 0.36867106 -0.70409417 0
0.24104798 0.24280514 0.91854602 53 70 98 0.60364527 0.33655915 -0.72273123 0
0.2414749 0.2456578 0.92017269 54 71 99 0.5701412 0.32063857 -0.75639278 0
0.24183032 0.24844544 0.92152667 49 68 96 0.53337491 0.26268235 -0.80405807 0
0.2420385 0.2510877 0.92232049 48 70 97 0.49648178 0.19793516 -0.84517908 0
0.24221176 0.25369745 0.92298073 122 145 174 0.47451928 0.14139789 -0.86881417 0
0.24229413 0.25621453 0.92329448 152 179 212 0.43670571 0.047849011 -0.89833111 0
0.24229114 0.25864202 0.92328268 123 153 195 0.39744091 -0.067212924 -0.91516292 0
0.24219082 0.26096487 0.92290074 92 134 181 0.34817821 -0.21411346 -0.91264856 0
0.2419814 0.26316699 0.92210293 128 175 226 0.28633583 -0.38945067 -0.87540847 0
0.24315345 0.13864008 0.91737562 163 210 249 -0.69617975 -0.60897297 -0.38011298 0
0.24274038 0.14081566 0.91581726 167 208 244 -0.75147849 -0.44167954 -0.49010122 0
0.24240775 0.14303058 0.91456228 178 211 238 -0.70633155 -0.43175188 -0.56096894 0
0.24206479 0.14523269 0.91326833 201 228 240 -0.61769438 -0.49163181 -0.61380112 0
0.24167556 0.14739972 0.91179961 235 253 255 -0.54605746 -0.511132 -0.66375095 0
0.2413348 0.149589 0.91051424 245 253 255 -0.47669858 -0.50891018 -0.71677685 0
0.24097773 0.15176138 0.90916693 203 205 215 -0.38479441 -0.53797925 -0.75000781 0
0.24060997 0.1539198 0.90777963 128 120 131 -0.28875872 -0.55132735 -0.78272372 0
0.24024455 0.15607232 0.90640092 106 100 111 -0.20423509 -0.54797232 -0.81118089 0
0.23988768 0.15822327 0.90505439 107 103 114 -0.13665739 -0.54452902 -0.82753426 0
0.23952736 0.16036485 0.90369481 98 98 110 -0.079666644 -0.56039542 -0.82438475 0
0.23913978 0.16248077 0.90223253 92 94 106 -0.026102934 -0.59715533 -0.80170089 0
0.23870659 0.16455759 0.90059853 127 129 141 0.031068996 -0.63541073 -0.77154905 0
0.23823164 0.16659649 0.89880645 124 129 138 0.099389359 -0.65441555 -0.74957466 0
0.23773466 0.16861033 0.89693141 205 216 220 0.18089376 -0.63971996 -0.74701792 0
0.23725419 0.17062622 0.89511883 239 255 255 0.27301466 -0.58461589 -0.76399434 0
0.23682509 0.17267004 0.89349985 231 254 255 0.36750498 -0.48971206 -0.79064679 0
0.23647898 0.1747666 0.89219403 207 227 239 0.44963607 -0.36903217 -0.81341422 0
0.23622553 0.17692576 0.89123768 146 163 184 0.51032037 -0.24263307 -0.82504684 0
0.23606995 0.17915405 0.89065075 141 160 183 0.5507797 -0.12881128 -0.82465106 0
0.23599815 0.18144384 0.89038008 163 182 205 0.57597262 -0.040931176 -0.81644368 0
0.23599425 0.18378496 0.89036518 134 150 174 0.59270519 0.027501702 -0.80494982 0
0.23605138 0.18617418 0.89058089 61 81 101 0.60363889 0.085815102 -0.7926259 0
0.2361678 0.18861178 0.89101994 51 71 91 0.61104918 0.14463104 -0.77826786 0
0.23635854 0.19111191 0.89173967 46 66 86 0.61426687 0.20859583 -0.76102817 0
0.23663686 0.19368748 0.89278978 45 64 87 0.61409366 0.26243407 -0.74432337 0
0.23698191 0.19632386 0.89409161 51 70 93 0.61225343 0.29873079 -0.73205578 0
0.23737641 0.19900846 0.89557964 67 86 109 0.60867131 0.31923068 -0.72636837 0
0.23778959 0.20171691 0.8971386 79 98 121 0.60246795 0.32425818 -0.72930729 0
0.23819366 0.20442562 0.89866328 80 99 122 0.59202325 0.31931159 -0.73996532 0
0.23857421 0.20712195 0.90009874 67 82 108 0.57528514 0.31074706 -0.75662619 0
0.23892656 0.2098012 0.90142828 58 72 96 0.55448389 0.2989938 -0.7766276 0
0.23924571 0.21245779 0.90263242 107 125 150 0.53394592 0.29108024 -0.79383498 0
0.2395547 0.21511178 0.90379804 165 185 210 0.52189898 0.29680517 -0.79970503 0
0.23987953 0.21778613 0.90502363 164 184 209 0.51105148 0.29456228 -0.80750197 0
0.24017349 0.22043867 0.90613282 170 188 213 0.52814174 0.3156772 -0.78829837 0
0.24057817 0.22319984 0.90765965 109 124 150 0.54216272 0.35957965 -0.75944853 0
0.24103743 0.2260201 0.90939224 73 88 114 0.57505608 0.37380582 -0.72772235 0
0.24156186 0.22891131 0.91137075 100 120 145 0.59861672 0.38196534 -0.70410264 0
0.24211843 0.2318437 0.91347051 111 131 156 0.60308242 0.40977696 -0.68437886 0
0.24280447 0.23491241 0.91605896 135 152 180 0.60445625 0.40294933 -0.68721503 0
0.24333394 0.23784167 0.91805655 96 110 139 0.60707909 0.3552241 -0.71082401 0
0.24379839 0.24071734 0.91980875 66 80 109 0.5696947 0.34069812 -0.74791235 0
0.24419518 0.24353476 0.92130595 137 154 182 0.55295837 0.28826907 -0.78175318 0
0.24446131 0.24622834 0.92230982 145 162 190 0.51574868 0.25107634 -0.81912398 0
0.24472035 0.24892011 0.92328733 98 117 145 0.46568367 0.22866726 -0.85489774 0
0.24490112 0.25153649 0.92396921 80 102 129 0.44415796 0.15693992 -0.88209617 0
0.24500073 0.25407243 0.9243452 157 180 209 0.40037337 0.076619051 -0.91314328 0
0.24502683 0.25653341 0.9244436 140 167 200 0.35730201 -0.016605167 -0.93384129 0
0.24497534 0.2589128 0.92424941 97 127 169 0.3103058 -0.13923694 -0.94038469 0
0.24482673 0.26118752 0.92368847 110 152 199 0.25467396 -0.29517248 -0.92087704 0
0.24487305 0.13824886 0.9147867 158 208 251 -0.57185596 -0.72975475 -0.37475166 0
0.24452391 0.14045668 0.91348261 159 206 252 -0.69802707 -0.39834893 -0.59504324 0
0.24426459 0.14271027 0.91251379 160 203 247 -0.66389054 -0.34636977 -0.66278011 0
0.24402592 0.14497092 0.91162229 173 211 244 -0.58398765 -0.39698523 -0.70806873 0
0.24371473 0.14718306 0.91045958 205 237 255 -0.48463818 -0.44629893 -0.75229186 0
0.24342571 0.14940271 0.90937978 229 252 255 -0.42835909 -0.44920111 -0.78404522 0
0.2431227 0.15160796 0.90824789 237 251 255 -0.36118901 -0.47026998 -0.80522591 0
0.24281158 0.15380213 0.9070859 180 182 192 -0.28161216 -0.48331508 -0.8289156 0
0.24249616 0.15598732 0.90590727 105 105 117 -0.20478126 -0.48912609 -0.84783274 0
0.2421788 0.1581651 0.90472168 101 99 116 -0.1382937 -0.49528673 -0.85765141 0
0.24185251 0.16033076 0.90350276 139 137 154 -0.077123746 -0.51540595 -0.85346866 0
0.24149904 0.16247174 0.90218234 98 99 114 -0.015264728 -0.55079526 -0.83450085 0
0.24110574 0.1645785 0.90071279 91 96 105 0.052821159 -0.58177686 -0.81163138 0
0.2406819 0.16665636 0.89912963 153 162 166 0.13253023 -0.58905077 -0.79715425 0
0.2402485 0.1687192 0.89751053 236 255 255 0.22333026 -0.56028455 -0.79762447 0
0.23984124 0.17079212 0.89598912 233 255 255 0.31939656 -0.49164531 -0.81010538 0
0.23948972 0.17289728 0.89467573 222 244 255 0.41074121 -0.39064124 -0.82382715 0
0.23921709 0.17505327 0.89365739 169 191 211 0.48410738 -0.27668017 -0.83011329 0
0.23902777 0.17726576 0.8929503 133 154 177 0.53558624 -0.16527073 -0.82815033 0
0.23892711 0.17954101 0.89257425 157 177 202 0.56881797 -0.06834127 -0.81961918 0
0.23890151 0.18187143 0.89247864 150 164 193 0.5898549 0.0067945342 -0.80748057 0
0.23894025 0.18425107 0.89262348 69 84 110 0.6049282 0.067351133 -0.79342651 0
0.23903877 0.18667801 0.8929913 129 146 167 0.61558706 0.12101967 -0.77872133 0
0.23919913 0.18915597 0.89359039 106 126 144 0.62177861 0.17572713 -0.76322436 0
0.23943435 0.19169691 0.89446914 48 65 86 0.62117219 0.23144722 -0.74871713 0
0.23974681 0.19430511 0.8956365 52 67 88 0.61466968 0.27548879 -0.73911232 0
0.24010994 0.19696094 0.89699304 105 116 142 0.60482734 0.30350634 -0.73625261 0
0.24050272 0.19964856 0.89846021 156 168 197 0.59191614 0.31671873 -0.74116439 0
0.24089277 0.20234163 0.89991754 163 174 205 0.57726866 0.31476873 -0.75344646 0
0.24125861 0.20502184 0.90128416 157 168 199 0.5615496 0.30319232 -0.76989388 0
0.24159233 0.2076816 0.90253073 99 112 138 0.5451777 0.28963104 -0.78669882 0
0.24190035 0.2103256 0.90368152 88 107 130 0.53325725 0.27803868 -0.79895645 0
0.24219102 0.21296035 0.90476733 161 185 207 0.53012478 0.28120226 -0.79993314 0
0.24250633 0.21562281 0.90594524 160 181 204 0.52711064 0.28367636 -0.8010506 0
0.24280244 0.21827415 0.90705144 169 190 213 0.54343355 0.31475842 -0.77820772 0
0.24322896 0.22104985 0.90864491 143 158 184 0.57158214 0.35615271 -0.73922193 0
0.24371566 0.22388919 0.91046286 67 82 108 0.58581442 0.37509999 -0.71841592 0
0.2442546 0.22678661 0.91247654 101 119 144 0.6106053 0.38987944 -0.68931508 0
0.24488477 0.22978029 0.91483051 156 176 201 0.60255152 0.4110525 -0.68408155 0
0.245518 0.23278931 0.91719627 159 176 204 0.60640818 0.39035851 -0.6927405 0
0.24605443 0.23571792 0.91920024 119 136 164 0.58071244 0.37063852 -0.72484487 0
0.24653022 0.23859848 0.92097765 60 79 102 0.56134713 0.32366845 -0.76166153 0
0.24685062 0.24133644 0.92217463 129 149 174 0.54006881 0.27990663 -0.79371154 0
0.24716191 0.24407171 0.92333764 139 159 184 0.50141066 0.26329011 -0.82417583 0
0.24740294 0.24674308 0.92423785 75 95 120 0.48405811 0.21298671 -0.84871924 0
0.24758092 0.24935563 0.92490262 60 83 107 0.44363984 0.15879825 -0.88202435 0
0.24769017 0.25190181 0.92531109 142 167 196 0.39947799 0.088917874 -0.91242033 0
0.24772923 0.25437805 0.925457 148 176 211 0.35164851 0.0072686491 -0.93610394 0
0.24770156 0.25678584 0.92535329 103 135 177 0.29834479 -0.09064389 -0.95014423 0
0.2475972 0.25911298 0.92496383 98 139 188 0.23734018 -0.21951051 -0.94630063 0
0.24739851 0.26133823 0.92422128 137 184 235 0.17263463 -0.37325597 -0.91152471 0
0.24648172 0.14020383 0.911838 155 202 248 -0.60369468 -0.39370215 -0.69321811 0
0.24625511 0.14247341 0.91099966 158 201 245 -0.57048023 -0.31836575 -0.75709689 0
0.24605221 0.14475252 0.91024888 170 208 241 -0.52498925 -0.33318785 -0.78318077 0
0.24581376 0.14700645 0.90936702 192 224 242 -0.42891124 -0.3830865 -0.81809527 0
0.24555433 0.14924289 0.90840721 221 244 255 -0.38830245 -0.40895543 -0.82581878 0
0.24528395 0.15146761 0.90740693 239 253 255 -0.34212586 -0.41805083 -0.84153628 0
0.24501643 0.15368877 0.90641731 237 239 249 -0.27768275 -0.42198014 -0.86303252 0
0.24474472 0.15590206 0.9054122 146 146 158 -0.20839198 -0.43028104 -0.8783114 0
0.24446675 0.15810606 0.90438372 140 138 155 -0.14154343 -0.44105962 -0.88624597 0
0.24417789 0.16029748 0.90331525 212 210 227 -0.075952113 -0.46202531 -0.8836084 0
0.24386442 0.16246678 0.90215534 125 126 141 -0.0068589314 -0.49335134 -0.86980307 0
0.2435184 0.16460814 0.90087545 117 122 131 0.071494602 -0.51491767 -0.85425311 0
0.24315368 0.1667299 0.89952618 222 231 235 0.16147029 -0.50952458 -0.8451699 0
0.24279028 0.16884537 0.89818186 236 255 255 0.25897253 -0.46840829 -0.84470528 0
0.24245961 0.17097686 0.89695835 233 255 255 0.35442773 -0.39147508 -0.84919262 0
0.24218662 0.17314327 0.89594859 207 229 242 0.43805224 -0.29218581 -0.85013986 0
0.24198675 0.17535727 0.89520919 136 158 178 0.50078654 -0.19079605 -0.84428048 0
0.24186078 0.17762163 0.89474326 142 163 186 0.54342365 -0.095530637 -0.83400506 0
0.24181433 0.17994277 0.8945716 158 178 203 0.57049984 -0.012977587 -0.82119524 0
0.24183609 0.18231438 0.89465195 102 116 145 0.58796161 0.053087641 -0.80714494 0
0.24192052 0.18473426 0.8949641 91 106 132 0.60028648 0.1084632 -0.79239637 0
0.24206346 0.18720107 0.89549309 161 178 199 0.60815632 0.15744704 -0.77804643 0
0.2422661 0.18971737 0.89624262 158 178 196 0.61027813 0.20436813 -0.76537192 0
0.24253143 0.19228737 0.89722437 133 150 171 0.60360855 0.24867119 -0.75750864 0
0.24285309 0.19490767 0.89841419 107 122 143 0.58885509 0.28227416 -0.75734472 0
0.24320373 0.19755787 0.89971149 83 94 120 0.56889242 0.30184838 -0.7650156 0
0.24356242 0.2002214 0.90103829 84 96 125 0.54495269 0.30880302 -0.77953017 0
0.24390639 0.20287988 0.90231097 77 88 119 0.5221566 0.30396092 -0.79684395 0
0.24422704 0.20552523 0.90349698 68 79 110 0.50616354 0.29308113 -0.81111163 0
0.24452667 0.20815901 0.90460557 56 69 95 0.50059485 0.28642362 -0.81692493 0
0.24482602 0.21079835 0.90571284 142 161 184 0.51008064 0.29010049 -0.80972803 0
0.24514551 0.21346112 0.90689498 165 189 211 0.52097028 0.28924856 -0.80307227 0
0.24545442 0.21612069 0.90803748 162 183 206 0.54790038 0.31961298 -0.77308005 0
0.24589831 0.21890663 0.90967983 162 183 206 0.57684612 0.36331245 -0.73160964 0
0.246418 0.22176923 0.91160226 90 105 131 0.60507488 0.3713344 -0.70426917 0
0.24696812 0.22466986 0.9136377 48 63 89 0.60809028 0.40358227 -0.6836282 0
0.24766795 0.2277187 0.91622639 51 69 94 0.60663903 0.40435249 -0.68446207 0
0.24822342 0.23064698 0.91828132 133 153 178 0.59965056 0.3750357 -0.70694238 0
0.24875557 0.2335643 0.92025006 74 91 119 0.57176977 0.36934897 -0.7325713 0
0.24922235 0.23642991 0.92197663 44 61 89 0.54408884 0.32932621 -0.77169406 0
0.24955548 0.2391766 0.92320913 58 77 100 0.52139688 0.28783172 -0.80330455 0
0.24986574 0.24190761 0.92435694 139 159 184 0.50872916 0.25643256 -0.82184976 0
0.25010204 0.24457219 0.92523098 101 121 146 0.48096645 0.20629658 -0.8521226 0
0.25027257 0.24717668 0.92586219 57 77 102 0.44822994 0.15486705 -0.88040113 0
0.25038624 0.24972756 0.92628253 113 136 160 0.40996644 0.094106771 -0.90723288 0
0.25043359 0.2522139 0.92645746 159 184 213 0.36459467 0.017017918 -0.93101078 0
0.2504133 0.25463253 0.92638278 129 157 192 0.31043804 -0.071079761 -0.94793254 0
0.2503275 0.25698334 0.92606509 99 131 173 0.24593143 -0.17472386 -0.95340931 0
0.2501671 0.25925538 0.92547208 127 168 217 0.17351155 -0.30265367 -0.93717372 0
0.24991864 0.26143196 0.92455274 129 176 227 0.10295511 -0.44515967 -0.88951296 0
0.24846667 0.13997118 0.91032475 151 202 249 -0.41786379 -0.2336131 -0.87796056 0
0.24828783 0.14226533 0.90966934 150 202 247 -0.44738522 -0.27015886 -0.85256124 0
0.24811937 0.14456223 0.90905219 153 201 244 -0.44375226 -0.2701785 -0.8544516 0
0.24794126 0.14685003 0.90839964 162 205 242 -0.40182722 -0.32602894 -0.85571033 0
0.24770129 0.14909726 0.90752065 191 226 248 -0.36536321 -0.37693775 -0.85113323 0
0.24745585 0.15133639 0.90662116 228 254 255 -0.32538128 -0.37303436 -0.86889154 0
0.24722475 0.1535798 0.90577465 237 254 255 -0.27369535 -0.36534956 -0.88972503 0
0.24699241 0.15581797 0.90492344 188 195 206 -0.21193399 -0.37139204 -0.90396464 0
0.2467539 0.1580476 0.90404946 142 147 163 -0.14380492 -0.38239527 -0.91273987 0
0.24650475 0.16026577 0.90313685 205 210 226 -0.073195174 -0.40142599 -0.91296202 0
0.24623501 0.16246559 0.90214849 126 133 144 0.0025759262 -0.42527452 -0.90506077 0
0.24594268 0.16464502 0.90107751 172 183 187 0.089604452 -0.43427694 -0.8963117 0
0.24564376 0.16681448 0.89998227 235 255 255 0.18673539 -0.41547373 -0.89023119 0
0.24535619 0.16898577 0.89892864 231 255 255 0.28662732 -0.36528739 -0.88566911 0
0.24510503 0.17117712 0.89800858 221 245 255 0.37746727 -0.28745824 -0.88027638 0
0.24491027 0.17340344 0.89729482 159 184 203 0.45126799 -0.19800307 -0.87014478 0
0.24477986 0.17567217 0.89681709 134 156 176 0.50379729 -0.11335286 -0.85635239 0
0.24471311 0.17798479 0.89657241 157 178 201 0.53867221 -0.03476217 -0.84179801 0
0.24471606 0.18034749 0.8965832 129 148 171 0.55983907 0.034940507 -0.82786435 0
0.2447805 0.18275607 0.89681935 62 86 108 0.57263899 0.093353659 -0.81447518 0
0.24490434 0.18521087 0.897273 133 155 175 0.57969362 0.14353678 -0.80209261 0
0.24508186 0.18770918 0.89792353 166 191 210 0.58180857 0.18601298 -0.79176891 0
0.24530843 0.19024883 0.89875352 168 193 210 0.57717073 0.22224082 -0.78580087 0
0.24557585 0.19282508 0.89973325 160 180 198 0.56263912 0.25249651 -0.78719926 0
0.24587184 0.19542913 0.90081781 90 105 126 0.53758657 0.27404669 -0.79743284 0
0.24617586 0.1980454 0.90193176 52 67 88 0.50689608 0.28640872 -0.81303531 0
0.24647866 0.20066653 0.90304112 74 89 110 0.47665429 0.29350185 -0.82864797 0
0.24677734 0.20328999 0.90413535 125 141 165 0.45822814 0.29823458 -0.83730698 0
0.24707928 0.20592216 0.90524179 65 84 107 0.45940709 0.30390993 -0.83461601 0
0.24739502 0.20857157 0.90639853 97 118 141 0.47951156 0.31680664 -0.8183533 0
0.24775097 0.21126141 0.90770233 164 190 212 0.49971095 0.31780478 -0.80578482 0
0.24809135 0.2139447 0.90894955 159 185 207 0.53457254 0.34322536 -0.77228796 0
0.24857296 0.21675776 0.91071403 168 189 212 0.58284038 0.37190017 -0.72248691 0
0.2491165 0.21963471 0.91270548 117 137 162 0.59043127 0.4021149 -0.69978184 0
0.24976692 0.2226174 0.91508853 47 66 94 0.60280687 0.41075209 -0.68403697 0
0.25040388 0.22560053 0.91742235 46 64 89 0.61058617 0.38654795 -0.69120568 0
0.25095344 0.22851633 0.91943556 41 61 86 0.58589965 0.37091264 -0.72051758 0
0.25145015 0.23139408 0.92125559 37 59 86 0.56852466 0.35602352 -0.74163812 0
0.25190172 0.2342394 0.92290986 61 79 104 0.5372231 0.32112184 -0.77991796 0
0.25222197 0.23697001 0.92408305 57 75 100 0.51176476 0.29016393 -0.80864197 0
0.25254983 0.23971426 0.92528456 45 63 88 0.50060153 0.26622388 -0.82372504 0
0.25279459 0.24238496 0.92618114 104 124 149 0.48037359 0.2123376 -0.85097229 0
0.25297526 0.24499837 0.92684323 101 123 150 0.45717916 0.15918209 -0.87501329 0
0.25309399 0.24755469 0.92727804 76 102 129 0.4292827 0.1002735 -0.89758658 0
0.25315255 0.25005391 0.9274928 149 177 205 0.39082345 0.029532727 -0.91999173 0
0.25314283 0.25248605 0.92745709 138 169 203 0.34118435 -0.057102513 -0.93826038 0
0.25306416 0.25484866 0.92716885 99 134 177 0.27858192 -0.15420897 -0.94795138 0
0.25291812 0.2571412 0.92663378 116 157 206 0.2039499 -0.2635476 -0.94283992 0
0.25269875 0.25935557 0.92583001 143 186 239 0.12222562 -0.38666797 -0.9140836 0
0.25046638 0.14214413 0.90889412 152 204 249 -0.32149544 -0.36718351 -0.87282133 0
0.25026563 0.14442113 0.90816545 158 206 249 -0.37638488 -0.30352575 -0.8753323 0
0.25007707 0.1467016 0.90748119 162 205 242 -0.3877995 -0.31711003 -0.86547846 0
0.24985777 0.14895999 0.90668517 172 207 229 -0.34948388 -0.34244642 -0.87211907 0
0.2496374 0.15121362 0.9058857 214 240 248 -0.30731401 -0.33272803 -0.89154369 0
0.24943388 0.15347332 0.9051469 237 254 255 -0.26628348 -0.31710452 -0.91024047 0
0.24923591 0.1557328 0.90442878 240 247 255 -0.21251108 -0.31267977 -0.92578101 0
0.24903858 0.15798873 0.90371257 159 164 180 -0.14184505 -0.31669012 -0.93786323 0
0.24883369 0.16023602 0.902969 126 131 147 -0.065211266 -0.33079973 -0.94144523 0
0.24861284 0.16246903 0.9021678 129 136 147 0.017447416 -0.34524822 -0.93834931 0
0.24837974 0.16468976 0.90132189 232 243 247 0.10981466 -0.34117877 -0.9335618 0
0.24815074 0.16690865 0.90049094 237 255 255 0.20785247 -0.3116844 -0.92717314 0
0.2479407 0.16913623 0.89972872 224 249 253 0.30296728 -0.25882497 -0.91718078 0
0.24776782 0.17138538 0.89910114 181 205 218 0.38459152 -0.18800847 -0.9037379 0
0.24764642 0.17366742 0.89866084 119 144 163 0.44787776 -0.11370281 -0.88683546 0
0.24757898 0.17598546 0.89841598 147 169 189 0.49173227 -0.046716649 -0.86949241 0
0.24756455 0.17834032 0.89836347 149 170 193 0.52014405 0.016077451 -0.85392725 0
0.24760862 0.18073769 0.89852351 73 92 115 0.53560019 0.073794432 -0.84124124 0
0.24770628 0.18317559 0.89887786 115 139 161 0.54238558 0.12394761 -0.83093607 0
0.24785496 0.18565348 0.89941758 165 187 207 0.5419578 0.16744851 -0.82355499 0
0.24804796 0.18816784 0.90011775 159 184 203 0.5357433 0.20183343 -0.81990391 0
0.24827339 0.19071086 0.90093595 142 167 184 0.5219447 0.22605117 -0.82248074 0
0.24851649 0.19327182 0.90181786 145 165 183 0.49820122 0.24189812 -0.83263499 0
0.24876529 0.19584203 0.90272099 77 92 113 0.46424863 0.25502756 -0.84819466 0
0.2490188 0.19842073 0.90364093 61 76 97 0.43278834 0.27072981 -0.85988343 0
0.24928647 0.20101562 0.90461218 139 154 175 0.42060009 0.29154465 -0.85912585 0
0.24958298 0.20363912 0.90568799 136 152 176 0.43345246 0.31552923 -0.84413284 0
0.24992083 0.20630252 0.90691411 73 92 115 0.44339287 0.34577629 -0.82694715 0
0.25030971 0.209015 0.90832549 156 177 200 0.49265063 0.34315208 -0.79971373 0
0.25069398 0.21173096 0.90971971 159 185 207 0.54252666 0.3580724 -0.75990063 0
0.25120679 0.21456409 0.91158074 163 189 211 0.56170207 0.40920284 -0.7190578 0
0.25185093 0.21752039 0.91391814 148 169 192 0.57330024 0.41892028 -0.70415395 0
0.25245109 0.22045058 0.91609585 73 93 118 0.59025735 0.41207877 -0.69410908 0
0.25311834 0.22345152 0.91851711 119 138 166 0.5764693 0.40873381 -0.70754492 0
0.25366336 0.22635619 0.92049509 98 116 141 0.56431049 0.37696236 -0.7344746 0
0.25415361 0.22922176 0.92227405 42 62 87 0.53382403 0.36147612 -0.76443893 0
0.25458035 0.23203887 0.92382258 63 85 112 0.52208722 0.31595659 -0.7922098 0
0.25489786 0.23476349 0.92497474 128 146 171 0.50116479 0.289763 -0.81539643 0
0.25522441 0.23750272 0.9261601 100 118 143 0.497549 0.27451959 -0.82285112 0
0.25549731 0.2401976 0.92715013 38 56 81 0.48346254 0.22963978 -0.84470689 0
0.25569835 0.2428294 0.92787945 41 61 86 0.47257763 0.17308451 -0.86412513 0
0.25583568 0.24540409 0.92837805 55 77 104 0.45568904 0.11322507 -0.88290858 0
0.25590795 0.24791837 0.92864025 126 152 179 0.43022689 0.042895194 -0.90170097 0
0.25591063 0.25036579 0.92864984 154 182 210 0.38990417 -0.041974198 -0.91989839 0
0.25583938 0.25274032 0.92839116 109 140 174 0.33353034 -0.14041615 -0.93222368 0
0.25569528 0.25504091 0.9278686 94 129 172 0.26049882 -0.24562739 -0.93370634 0
0.25548357 0.2572706 0.92710012 139 180 229 0.17554708 -0.35602805 -0.91783845 0
0.25241384 0.14428385 0.90730214 152 206 251 -0.37319976 -0.33574983 -0.8648665 0
0.25221613 0.14655767 0.9065913 151 204 246 -0.38150024 -0.30331483 -0.87318826 0
0.25202215 0.14883 0.9058941 157 201 241 -0.33636039 -0.30153808 -0.89215279 0
0.25182953 0.15109947 0.90520197 186 221 248 -0.28913298 -0.29290378 -0.91137785 0
0.25164887 0.15337265 0.90455258 220 247 255 -0.25097418 -0.27463624 -0.92821705 0
0.25148124 0.15565027 0.90394968 237 254 255 -0.20017372 -0.25401384 -0.94625974 0
0.25132725 0.15793347 0.90339631 225 237 247 -0.12746905 -0.24410141 -0.9613356 0
0.2511704 0.16021183 0.90283263 136 145 154 -0.048101477 -0.25105458 -0.96677703 0
0.25100321 0.16248056 0.90223163 203 218 219 0.036856793 -0.25641716 -0.96586329 0
0.25083211 0.16474357 0.90161663 239 255 255 0.12696165 -0.24293318 -0.96169859 0
0.25067267 0.16701114 0.90104353 235 255 255 0.21666768 -0.2088321 -0.95364797 0
0.25053638 0.16929124 0.90055358 219 238 252 0.29959795 -0.15961988 -0.94061828 0
0.25043535 0.17159304 0.90019041 157 177 197 0.36883777 -0.099889584 -0.92411077 0
0.25037959 0.17392434 0.8999902 135 157 175 0.42206475 -0.041434597 -0.90561837 0
0.25036672 0.1762847 0.89994377 161 183 203 0.45948073 0.0090123201 -0.88814199 0
0.2503953 0.17867443 0.90004653 106 127 150 0.48339128 0.056523137 -0.87357771 0
0.25046912 0.18109739 0.90031183 73 95 113 0.49382222 0.10126068 -0.86364686 0
0.25058448 0.18355227 0.90072662 142 164 184 0.49377364 0.14130273 -0.85803336 0
0.25073856 0.18603805 0.90128052 118 140 160 0.48446444 0.17647584 -0.85682583 0
0.25092432 0.18855044 0.90194821 52 74 94 0.46802363 0.20177752 -0.86037183 0
0.25112614 0.19107859 0.90267348 63 85 105 0.45113477 0.21322538 -0.86660969 0
0.25132951 0.19361182 0.90340447 141 163 183 0.44238713 0.21507268 -0.87065345 0
0.2515319 0.19614811 0.90413195 83 105 125 0.41212559 0.23251833 -0.88095838 0
0.25175965 0.19870831 0.90495086 119 141 161 0.3812609 0.27856362 -0.88150012 0
0.25204891 0.20132191 0.90599054 143 162 185 0.37000221 0.33763635 -0.86550564 0
0.25241163 0.20400023 0.90729398 78 97 120 0.42871606 0.34958979 -0.83306032 0
0.25278044 0.20669058 0.90861994 126 147 170 0.48120132 0.37478948 -0.79245079 0
0.25328192 0.20949753 0.91042238 168 192 214 0.55800623 0.40075466 -0.72665316 0
0.25389609 0.21240829 0.91263002 157 182 206 0.5771901 0.40499789 -0.70910388 0
0.25447375 0.2152998 0.91470641 169 188 211 0.58305407 0.39899835 -0.70770651 0
0.25507998 0.21822666 0.91688573 102 118 142 0.5660795 0.42469066 -0.7065351 0
0.25574714 0.22121774 0.91928387 54 72 97 0.55404216 0.42082411 -0.71829259 0
0.25630394 0.22412489 0.92128539 69 92 116 0.51543993 0.40024453 -0.75771099 0
0.25679195 0.22698185 0.92303938 54 77 101 0.50507462 0.35264534 -0.78774416 0
0.25715458 0.22973587 0.92434263 122 144 171 0.48922798 0.32528466 -0.8092255 0
0.25753567 0.23251356 0.92571259 75 97 124 0.47342795 0.3239592 -0.81909484 0
0.25787932 0.23526432 0.92694807 84 104 129 0.48878369 0.29007268 -0.82276875 0
0.25817803 0.23798002 0.92802143 46 64 89 0.48748413 0.25365072 -0.83547628 0
0.25842258 0.24065109 0.92890048 45 63 88 0.48478487 0.20443803 -0.8504051 0
0.25859776 0.24326152 0.92953038 42 62 87 0.48008323 0.14223549 -0.86561495 0
0.25870126 0.24580705 0.92990226 110 139 165 0.46646947 0.070508733 -0.88172263 0
0.25872877 0.24828167 0.93000114 152 181 212 0.44054735 -0.015524367 -0.89759517 0
0.2586742 0.2506772 0.92980474 127 160 194 0.39715615 -0.11722345 -0.9102338 0
0.25853679 0.25299075 0.92931092 86 127 171 0.33431616 -0.22899167 -0.9142186 0
0.25832126 0.25522459 0.92853665 105 148 201 0.25350195 -0.34055546 -0.9054054 0
0.25455296 0.14414409 0.90642297 154 208 253 -0.34355602 -0.30988672 -0.88653225 0
0.2543534 0.14641561 0.90571219 152 205 247 -0.36677864 -0.27919394 -0.8874256 0
0.25419196 0.14870563 0.90513706 156 200 240 -0.33100605 -0.2516903 -0.90944326 0
0.25403067 0.15099284 0.90456289 177 212 239 -0.27192867 -0.24922208 -0.9294855 0
0.25387362 0.15327954 0.9040038 204 231 243 -0.22465248 -0.23012155 -0.94687659 0
0.25373739 0.15557601 0.90351862 235 252 255 -0.16981947 -0.19237623 -0.96651584 0
0.25362822 0.15788683 0.90312988 241 253 255 -0.10029668 -0.168658 -0.98055851 0
0.25352037 0.1601965 0.90274608 203 212 221 -0.025176732 -0.16937256 -0.98523045 0
0.25340706 0.16250053 0.90234238 238 253 254 0.054660901 -0.16906773 -0.98408753 0
0.25329468 0.16480304 0.90194213 239 255 255 0.13448812 -0.1530086 -0.97903085 0
0.25319651 0.16711287 0.90159261 230 250 255 0.20884539 -0.12082881 -0.97045553 0
0.25312224 0.16943681 0.90132809 174 193 207 0.27505356 -0.078116514 -0.95825011 0
0.25308022 0.17178136 0.90117866 139 159 179 0.32985085 -0.028534593 -0.94360167 0
0.25307781 0.17415234 0.90116996 157 179 197 0.37243059 0.018008126 -0.92788535 0
0.25310951 0.17654699 0.90128291 151 173 193 0.40359896 0.056018133 -0.91321951 0
0.25317246 0.17896432 0.90150696 59 80 103 0.42356068 0.089069992 -0.90147817 0
0.25326476 0.18140399 0.90183574 48 70 88 0.4291755 0.1188188 -0.89537179 0
0.25338352 0.18386449 0.9022584 128 150 170 0.42247012 0.14617054 -0.89451277 0
0.25352621 0.18634477 0.90276659 118 140 160 0.41049653 0.1702645 -0.89582503 0
0.2536884 0.18884234 0.90334421 51 73 93 0.38148957 0.19768569 -0.9029873 0
0.25387615 0.19136219 0.90401286 54 76 96 0.40179858 0.22459581 -0.88775831 0
0.25410119 0.19391397 0.90481412 111 133 153 0.41362682 0.2187334 -0.88378084 0
0.25428227 0.19643602 0.90545869 156 178 198 0.4497689 0.20085765 -0.87026668 0
0.25448522 0.19897859 0.90618151 154 176 196 0.44072986 0.24661797 -0.86309725 0
0.25476462 0.20158546 0.90717638 106 125 148 0.51666772 0.32724315 -0.79118037 0
0.25525117 0.20436332 0.9089089 88 107 130 0.53214204 0.39817926 -0.74718016 0
0.25581774 0.20721525 0.91092658 160 181 204 0.57949483 0.44032302 -0.68578529 0
0.2566545 0.21029918 0.91390598 161 185 207 0.6293326 0.40239173 -0.66484684 0
0.25719187 0.21315065 0.91581964 164 189 213 0.63115561 0.3495959 -0.6924054 0
0.25774589 0.21602616 0.91779238 131 150 173 0.59786105 0.38540256 -0.70287061 0
0.25836948 0.21897089 0.92001271 55 71 95 0.56921774 0.39465785 -0.72127414 0
0.25889423 0.22184281 0.92188132 53 71 96 0.52287924 0.36699203 -0.76935965 0
0.2593058 0.22462644 0.92334682 80 103 127 0.49687791 0.34986126 -0.79417217 0
0.25973293 0.22743145 0.92486805 133 156 180 0.47312731 0.35444862 -0.80654627 0
0.26013216 0.23021972 0.92628962 160 182 209 0.49100307 0.33115575 -0.80576164 0
0.26050758 0.23299423 0.92762631 109 131 158 0.49769044 0.31142294 -0.8095184 0
0.26085442 0.23574993 0.92886114 44 64 89 0.50905514 0.27995941 -0.81393218 0
0.26114848 0.23846397 0.92990851 49 67 92 0.51437747 0.23587361 -0.82448739 0
0.26137784 0.24112368 0.93072504 45 63 88 0.51476926 0.17835124 -0.83857238 0
0.2615273 0.24371348 0.93125755 83 103 128 0.50820857 0.10663744 -0.85460675 0
0.26159248 0.24622653 0.93148941 146 175 201 0.4909429 0.022005983 -0.87091374 0
0.26156911 0.24865675 0.93140602 150 179 210 0.45876968 -0.079784244 -0.88496614 0
0.26145113 0.2509957 0.93098617 103 136 170 0.40737349 -0.19746621 -0.89165789 0
0.26124179 0.2532438 0.93024063 115 156 200 0.33608595 -0.32005098 -0.88578415 0
0.25650626 0.14628498 0.90490395 152 208 254 -0.31863382 -0.29034394 -0.90231532 0
0.25635892 0.14858194 0.90438432 148 200 245 -0.30351439 -0.20666158 -0.9301452 0
0.25624046 0.15089336 0.90396678 157 200 244 -0.24945831 -0.18788926 -0.9499833 0
0.25611797 0.15319993 0.90353423 188 219 253 -0.18588442 -0.1737069 -0.96709508 0
0.25601718 0.15551759 0.90317911 202 217 236 -0.12647092 -0.13072012 -0.98331958 0
0.25594869 0.15785319 0.90293741 242 247 255 -0.068808623 -0.10035568 -0.99256951 0
0.25588587 0.16019115 0.90271568 227 231 236 -0.0059953425 -0.095175654 -0.99544251 0
0.25582227 0.16252734 0.90249127 240 254 255 0.061435197 -0.092107989 -0.99385196 0
0.255761 0.16486387 0.90227491 235 254 255 0.12603705 -0.078940727 -0.98887968 0
0.25571248 0.16720757 0.90210366 212 231 245 0.1832082 -0.05252593 -0.98167002 0
0.25568566 0.16956492 0.90200931 148 165 184 0.2323889 -0.016811965 -0.97247761 0
0.25568751 0.17194095 0.90201586 153 170 191 0.27261019 0.024807205 -0.96180475 0
0.25572363 0.17434037 0.90214324 166 183 204 0.30400762 0.063281395 -0.95056558 0
0.25578758 0.17675968 0.90236866 93 110 131 0.32798916 0.092258297 -0.9401657 0
0.25587356 0.17919563 0.90267199 45 62 83 0.34367228 0.11176622 -0.93241501 0
0.25597277 0.18164262 0.90302223 43 59 83 0.34550411 0.12576793 -0.92995131 0
0.25608367 0.18409976 0.9034133 81 98 119 0.33434367 0.14783667 -0.93078393 0
0.2562201 0.18657763 0.9038949 74 90 114 0.31856069 0.15963785 -0.93436337 0
0.25634924 0.18905261 0.90435004 82 103 126 0.33115843 0.22829404 -0.91554135 0
0.25661844 0.19163461 0.90529996 136 157 180 0.32544315 0.28129965 -0.90274984 0
0.2568554 0.19419712 0.90613556 157 177 202 0.34395063 0.29053187 -0.8929106 0
0.25715449 0.19681178 0.90719098 135 153 178 0.42209154 0.27067012 -0.86520308 0
0.25738892 0.1993818 0.90801781 66 84 109 0.56266999 0.33783457 -0.75450003 0
0.25803426 0.20227835 0.91029477 63 82 105 0.77319229 0.26601979 -0.57567966 0
0.25860402 0.20512685 0.91230458 149 168 191 0.76950973 0.29063621 -0.56866992 0
0.25942266 0.20818572 0.91519266 163 184 207 0.7105425 0.37231061 -0.5970881 0
0.2602393 0.21125823 0.91807377 163 184 207 0.6914469 0.3367236 -0.63915437 0
0.26068363 0.21404006 0.91964102 153 173 198 0.68189692 0.27273184 -0.67870021 0
0.26112664 0.21682911 0.92120391 71 90 118 0.63333333 0.29961351 -0.7135269 0
0.26157251 0.21962884 0.92277676 42 60 90 0.58042514 0.30219996 -0.75616258 0
0.2619274 0.22235957 0.92402881 89 107 137 0.50615847 0.3255266 -0.79864645 0
0.26235083 0.22515579 0.9255228 133 155 182 0.46913978 0.3549543 -0.8086502 0
0.26275948 0.22794694 0.9269641 145 169 196 0.4411774 0.36155364 -0.82136565 0
0.2631745 0.23075131 0.92842829 136 161 185 0.48838419 0.3393268 -0.80395168 0
0.26356849 0.2335448 0.92981827 99 126 145 0.55960006 0.29502875 -0.7744714 0
0.26393032 0.23631676 0.93109453 37 59 79 0.57500583 0.25416344 -0.77766907 0
0.26421037 0.23902155 0.93208283 40 57 78 0.57161278 0.20116577 -0.79548174 0
0.26441112 0.241659 0.93279099 47 62 81 0.56369931 0.1371069 -0.81452119 0
0.26451853 0.24421406 0.93317014 139 154 173 0.54902512 0.056586388 -0.83388805 0
0.26452991 0.24668135 0.93321002 156 176 201 0.52276635 -0.040403161 -0.85151803 0
0.26443973 0.24905343 0.93289214 91 120 151 0.47903389 -0.1572575 -0.86359525 0
0.26424548 0.25132477 0.93220669 71 109 147 0.41433933 -0.28688791 -0.86372346 0
0.2586998 0.14617974 0.90425324 152 208 254 -0.30391878 -0.36709794 -0.87913173 0
0.25855926 0.14847976 0.90376216 150 202 247 -0.26008675 -0.18086916 -0.9484942 0
0.25846586 0.15080464 0.90343547 158 201 245 -0.20516545 -0.13257018 -0.96970731 0
0.25838754 0.15313679 0.90316182 171 202 236 -0.13244866 -0.10810698 -0.98527676 0
0.25832459 0.15547675 0.90294182 111 126 145 -0.075969286 -0.075603202 -0.99423987 0
0.25828758 0.15783136 0.90281248 147 152 163 -0.034820311 -0.047860224 -0.99824691 0
0.25826064 0.16019152 0.90271801 146 150 155 0.008439621 -0.037245505 -0.99927056 0
0.25823715 0.16255341 0.90263605 219 233 236 0.056331225 -0.032772809 -0.99787414 0
0.25821549 0.16491602 0.90256029 221 240 247 0.10169412 -0.024119694 -0.99452329 0
0.25820333 0.16728435 0.90251786 185 204 218 0.14141265 -0.0040862737 -0.98994231 0
0.25820959 0.16966468 0.90253985 150 167 186 0.17554125 0.02555248 -0.9841404 0
0.25824076 0.17206155 0.90264857 167 184 205 0.20370898 0.061570089 -0.97709358 0
0.25830191 0.17447938 0.90286249 137 154 175 0.22580653 0.095386729 -0.969491 0
0.25838712 0.17691474 0.90316015 51 68 89 0.2438359 0.1191126 -0.96247405 0
0.25848839 0.1793628 0.90351409 43 60 81 0.25783741 0.12801516 -0.95767009 0
0.25859007 0.18181303 0.90386957 41 57 81 0.25477257 0.12917212 -0.9583348 0
0.25869304 0.18426612 0.9042294 33 50 71 0.24052703 0.13854724 -0.96070361 0
0.25880861 0.18673015 0.9046334 39 55 79 0.21222968 0.20571508 -0.95532179 0
0.25902212 0.18926772 0.90537953 84 105 128 0.33076674 0.23329671 -0.9144212 0
0.25922123 0.19179885 0.90607584 101 122 145 0.2886301 0.27219668 -0.91793329 0
0.25949976 0.19439302 0.90704954 93 113 138 0.77282 0.17116553 -0.61110687 0
0.25988337 0.197072 0.90839016 50 68 93 0.81443262 0.22630085 -0.53431022 0
0.26072887 0.20011245 0.91134542 45 63 88 0.7071327 0.48420274 -0.51527768 0
0.26310965 0.20436101 0.91966712 116 135 158 0.68009984 0.50113893 -0.53509253 0
0.26374835 0.20728427 0.92189991 172 191 214 0.80121624 0.14860493 -0.57962835 0
0.26375973 0.20972051 0.92193979 162 183 206 0.79671365 0.082649082 -0.59867907 0
0.26407471 0.21240111 0.92304063 167 188 211 0.73201907 0.1473915 -0.66514957 0
0.2642456 0.21497028 0.92363781 117 137 162 0.70659614 0.13057527 -0.69546539 0
0.2644673 0.21758437 0.92441267 52 71 99 0.65535438 0.18487383 -0.73234719 0
0.26475924 0.22026099 0.92543304 44 62 92 0.5922361 0.20039862 -0.78044653 0
0.26496315 0.22286905 0.92614591 50 68 98 0.57869673 0.20972009 -0.78811657 0
0.2652708 0.22556892 0.92722112 54 76 103 0.57512313 0.25514033 -0.77726239 0
0.26561028 0.22830203 0.92840815 55 79 106 0.60256344 0.31397325 -0.7337153 0
0.26617816 0.23123965 0.93039292 57 82 106 0.63266975 0.36117014 -0.68504393 0
0.26683247 0.23426357 0.93267995 64 91 110 0.6303519 0.32426438 -0.70534343 0
0.26720473 0.2370494 0.93398124 90 112 132 0.63522917 0.21120927 -0.74288267 0
0.26741773 0.23969926 0.93472582 97 114 135 0.62603247 0.13626336 -0.7677992 0
0.26755115 0.24228102 0.93519217 117 132 151 0.60718739 0.072240956 -0.79126787 0
0.26758775 0.24477662 0.93531984 146 161 180 0.58273953 -0.014351376 -0.81253231 0
0.26752013 0.24717662 0.93508345 83 103 128 0.54544121 -0.1233012 -0.82902998 0
0.26734161 0.24947195 0.93445957 30 59 90 0.48789895 -0.25302914 -0.83542264 0
0.26705354 0.25166067 0.93345284 100 138 176 0.40813994 -0.38824445 -0.82624936 0
0.2608588 0.1460571 0.90349442 155 208 255 -0.26970693 -0.38464496 -0.88278335 0
0.26077658 0.14838897 0.90320975 151 201 251 -0.18411282 -0.10036297 -0.97776777 0
0.2607272 0.15073846 0.90303868 152 199 250 -0.1259156 -0.060970906 -0.99016565 0
0.26069582 0.15309751 0.90293008 166 205 254 -0.072324894 -0.045320071 -0.996351 0
0.26066643 0.1554572 0.90282845 117 133 170 -0.027647469 -0.03308985 -0.99906993 0
0.26065096 0.1578248 0.90277475 117 119 131 -0.002228874 -0.015371156 -0.99987936 0
0.26064545 0.16019821 0.90275562 139 136 140 0.021214595 -0.0026555154 -0.99977148 0
0.26064739 0.16257605 0.90276206 123 124 132 0.046972044 0.0035307102 -0.99888998 0
0.26065043 0.16495483 0.90277267 76 85 96 0.072512165 0.0098382877 -0.99731904 0
0.26066115 0.16733854 0.90281004 105 120 134 0.096742243 0.027006455 -0.99494302 0
0.26068893 0.16973349 0.90290612 160 177 196 0.11934408 0.054146778 -0.99137545 0
0.26073959 0.17214417 0.90308195 151 171 191 0.13875781 0.087321497 -0.98646915 0
0.2608178 0.17457415 0.90335274 83 106 130 0.15324496 0.11888016 -0.98101157 0
0.26091844 0.17702065 0.90370083 52 75 99 0.16479954 0.14128901 -0.97615492 0
0.2610333 0.17947899 0.90409905 59 83 105 0.17124829 0.13790406 -0.97552878 0
0.26112926 0.18192607 0.90443128 63 88 107 0.16449328 0.12160245 -0.97885388 0
0.26121768 0.18436961 0.90473759 69 93 115 0.27538139 0.11586752 -0.95432687 0
0.26131651 0.18682231 0.90507978 73 96 120 0.2766811 0.27261943 -0.92148042 0
0.26169556 0.18947962 0.90639287 78 103 127 0.4485414 0.27629101 -0.84998465 0
0.2618908 0.19200899 0.90706879 83 108 132 0.75459379 0.42019206 -0.50401092 0
0.26641273 0.20018312 0.92273092 94 116 143 0.80351615 0.32265013 -0.50025851 0
0.26692608 0.20300283 0.92450863 115 137 164 0.85850781 0.091667466 -0.50454086 0
0.26695716 0.2054607 0.92461616 163 185 212 0.78128141 0.00045234704 -0.62417889 0
0.26692769 0.20787217 0.92451417 161 184 208 0.69382906 0.14869936 -0.70462042 0
0.2674014 0.21067938 0.92615491 159 182 206 0.68331707 0.18878336 -0.70529336 0
0.26749873 0.2131954 0.92649227 160 185 209 0.68084633 0.093659401 -0.72641331 0
0.26766095 0.21576531 0.92705393 142 166 198 0.70204049 0.10438571 -0.70444512 0
0.26780683 0.21832503 0.92755944 150 178 213 0.69622183 0.084571384 -0.71282732 0
0.26790345 0.22084662 0.92789364 150 179 218 0.71499163 0.12879609 -0.68716711 0
0.26821059 0.2235457 0.92895806 153 182 221 0.72970515 0.21541221 -0.64894384 0
0.26869085 0.2263961 0.93062115 157 184 222 0.76314813 0.25823793 -0.59238344 0
0.26939288 0.22944403 0.93305242 157 185 220 0.74224001 0.31930295 -0.58917344 0
0.27021956 0.2326123 0.93591589 163 190 221 0.73039669 0.26709142 -0.6286357 0
0.27047324 0.23529702 0.93679446 163 190 214 0.73044735 0.11654935 -0.67295086 0
0.27060303 0.23787746 0.937244 169 189 207 0.68955636 0.085566625 -0.71915936 0
0.27071783 0.24044707 0.93764174 167 178 196 0.65222389 0.05981303 -0.7556628 0
0.27075753 0.24295123 0.93777895 136 148 163 0.62609881 -0.0070492462 -0.7797119 0
0.27070117 0.24536905 0.93758386 57 73 90 0.59356093 -0.10152606 -0.79835945 0
0.27053615 0.24768645 0.9370122 34 56 83 0.54595989 -0.22280519 -0.80764192 0
0.27025345 0.2498921 0.93603343 49 82 121 0.47521096 -0.36219722 -0.80186516 0
0.26306945 0.14834253 0.90292698 151 201 251 -0.060808446 -0.030367713 -0.99768734 0
0.26304963 0.15070836 0.9028585 153 200 251 -0.038180623 -0.021389687 -0.99904186 0
0.2630403 0.15307993 0.90282667 171 210 255 -0.018208157 -0.0098082926 -0.99978614 0
0.26303604 0.15545438 0.90281218 130 146 183 0.0036017101 -0.0052024494 -0.99998003 0
0.26303309 0.15782951 0.90280193 103 105 117 0.016668942 0.0014966505 -0.99985999 0
